ply 
format ascii 1.0
element vertex 741
property float x
property float y
property float z
property float nx
property float ny
property float nz
property uchar red
property uchar green
property uchar blue
end_header
3.63627 0.127978 0.505366 0.925318 -0.0219048 -0.378558 0 255 255
3.63196 0.11903 0.493125 0.794406 -0.0652768 -0.603869 0 255 255
3.63106 0.128227 0.494033 0.685396 0.0181235 -0.727945 0 255 255
3.63603 0.121257 0.504168 0.892113 0.123445 -0.434622 0 255 255
3.63425 0.129526 0.503264 -0.712689 -0.117613 0.69155 0 255 255
3.63352 0.117459 0.497363 0.966501 -0.00893753 -0.256507 0 255 255
3.62876 0.137776 0.493674 0.768963 0.0256218 -0.638779 0 255 255
3.63191 0.124604 0.493161 0.857772 0.0790971 -0.507908 0 255 255
3.62957 0.122558 0.493736 0.859307 -0.166754 -0.483513 0 255 255
3.63194 0.132455 0.492836 0.845511 -0.258183 -0.467388 0 255 255
3.63369 0.132896 0.497753 0.836871 -0.0875524 -0.540353 0 255 255
3.63446 0.11955 0.503114 0.928635 0.1607 -0.334385 0 255 255
3.63415 0.134514 0.503339 0.901597 -0.0546774 -0.429108 0 255 255
3.65589 0.117903 0.507975 0.811707 -0.0305874 -0.583264 0 255 255
3.65625 0.126774 0.493111 0.94508 -0.166795 -0.281076 0 255 255
3.65047 0.133775 0.49897 0.788041 -0.046904 -0.613833 0 255 255
3.64756 0.129105 0.49763 0.868658 0.0576122 -0.492051 0 255 255
3.64676 0.122397 0.50831 0.867797 0.0603011 -0.493247 0 255 255
3.63737 0.128078 0.502363 0.956978 -0.08156 -0.278463 0 255 255
3.63988 0.123965 0.492927 0.736208 -0.0269926 -0.676217 0 255 255
3.64694 0.122908 0.497988 0.937626 -0.241205 -0.250353 0 255 255
3.64339 0.11848 0.49763 0.877748 -0.0754547 -0.473143 0 255 255
3.63716 0.123366 0.507774 0.914865 -0.041583 -0.401614 0 255 255
3.63686 0.117721 0.507335 0.931365 0.0677093 -0.357737 0 255 255
3.64879 0.137492 0.502392 0.910046 -0.134963 -0.391919 0 255 255
3.64001 0.130857 0.509933 0.886628 0.107753 -0.449755 0 255 255
3.65717 0.122394 0.496077 0.753554 -0.165197 -0.636291 0 255 255
3.657 0.1124 0.521425 0.981538 -0.0813982 -0.173084 0 255 255
3.65391 0.114433 0.517052 0.839604 -0.0698045 -0.538695 0 255 255
3.64111 0.1081 0.519519 0.915457 -0.0366458 -0.400744 0 255 255
3.64037 0.102457 0.519364 0.896192 -0.0893022 -0.434587 0 255 255
3.63867 0.107475 0.512285 0.916121 -0.118712 -0.382922 0 255 255
3.63912 0.0977925 0.518181 0.996279 0.0379671 -0.0773794 0 255 255
3.63974 0.104504 0.516337 0.986878 -0.137966 -0.0838829 0 255 255
3.63853 0.113856 0.512382 0.936824 0.188409 -0.294724 0 255 255
3.64119 0.113343 0.519111 0.897037 0.0622102 -0.437554 0 255 255
3.63844 0.0996881 0.51314 0.974881 0.0420829 -0.218716 0 255 255
3.63956 0.113527 0.516473 0.973893 0.13981 -0.178847 0 255 255
3.63966 0.108371 0.516395 0.983793 -0.168369 -0.061669 0 255 255
3.64095 0.0975766 0.520333 0.941888 -0.0303368 -0.334554 0 255 255
3.64014 0.115963 0.510792 0.838352 0.102558 -0.535395 0 255 255
3.65688 0.108388 0.522454 0.992489 -0.0417185 -0.114997 0 255 255
3.64132 0.098151 0.526394 0.987921 0.0141445 -0.15431 0 255 255
3.64139 0.11278 0.52564 0.993161 0.0845605 -0.0805034 0 255 255
3.63865 0.127502 0.511709 0.970367 -0.0268577 -0.240137 0 255 255
3.64213 0.133752 0.530065 0.915537 -0.215071 -0.339908 0 255 255
3.63896 0.123771 0.517599 0.998007 0.00262723 -0.0630532 0 255 255
3.63775 0.119058 0.510899 0.910176 0.021387 -0.41367 0 255 255
3.63702 0.134589 0.510197 0.906527 0.0879546 -0.412884 0 255 255
3.63881 0.122475 0.511654 0.941771 -0.125453 -0.311976 0 255 255
3.63983 0.133989 0.521854 0.975215 -0.0135882 -0.220841 0 255 255
3.64193 0.124423 0.515203 0.974902 0.189411 -0.117 0 255 255
3.65246 0.122553 0.512553 0.8372 -0.23522 -0.493729 0 255 255
3.6408 0.123257 0.526771 0.985554 -0.0189029 -0.168303 0 255 255
3.65062 0.136012 0.515946 0.872683 -0.191227 -0.449284 0 255 255
3.65682 0.123328 0.528155 0.990855 -0.0647971 -0.118356 0 255 255
3.65273 0.13491 0.510427 0.831835 -0.312468 -0.458708 0 255 255
3.64031 0.128824 0.520804 0.936403 0.0579517 -0.346107 0 255 255
3.64042 0.123616 0.520725 0.999433 0.027152 0.0199026 0 255 255
3.65227 0.126886 0.516963 0.990404 -0.00179396 -0.138188 0 255 255
3.63926 0.118645 0.517036 0.888813 0.118457 -0.442695 0 255 255
3.64091 0.117971 0.526692 0.991182 0.0232455 -0.130453 0 255 255
3.64147 0.128485 0.528418 0.912486 0.00769816 -0.409035 0 255 255
3.63886 0.12894 0.517677 0.975329 0.187935 -0.115821 0 255 255
3.63875 0.13411 0.517755 0.966872 0.00888574 -0.255105 0 255 255
3.64059 0.133828 0.52693 0.931628 -0.169348 -0.321545 0 255 255
3.64071 0.11845 0.520161 0.888813 0.118457 -0.442695 0 255 255
3.67704 0.103173 0.50811 0.912923 0.0530075 -0.404676 0 255 255
3.67318 0.103209 0.502819 0.956726 -0.00662808 -0.290916 0 255 255
3.65935 0.112774 0.498246 0.881071 0.0369682 -0.471538 0 255 255
3.66621 0.108563 0.492663 -0.749042 -0.136714 0.648264 0 255 255
3.67264 0.0985617 0.497261 -0.748914 -0.1706 0.640331 0 255 255
3.66087 0.101383 0.503126 0.979801 0.0928141 -0.177131 0 255 255
3.67324 0.0987047 0.502273 0.946381 0.0720598 -0.314915 0 255 255
3.67423 0.109241 0.507232 0.917257 0.146639 -0.370319 0 255 255
3.65887 0.101668 0.491858 0.980689 -0.0288938 -0.193429 0 255 255
3.67268 0.102573 0.497528 0.812742 0.210703 -0.543189 0 255 255
3.67202 0.108342 0.501459 0.820422 0.214064 -0.530174 0 255 255
3.66875 0.104548 0.497577 0.797686 0.0224354 -0.602656 0 255 255
3.66846 0.113919 0.497134 0.843058 0.316909 -0.434536 0 255 255
3.66708 0.0986406 0.492318 0.834217 0.0184521 -0.551128 0 255 255
3.66762 0.104219 0.492701 0.841893 0.122057 -0.525659 0 255 255
3.67658 0.109945 0.50732 0.888494 -0.225361 -0.399738 0 255 255
3.67626 0.0987676 0.507476 0.882053 -0.00450919 -0.471129 0 255 255
3.67485 0.103549 0.506842 0.906551 0.0734759 -0.415651 0 255 255
3.66894 0.0990184 0.49752 0.782818 0.146475 -0.604765 0 255 255
3.67007 0.108747 0.495854 0.844566 0.0055708 -0.535422 0 255 255
3.67503 0.1082 0.503484 0.887414 -0.0682279 -0.455895 0 255 255
3.66833 0.108356 0.497838 0.844566 0.0055708 -0.535422 0 255 255
3.65966 0.101555 0.496357 0.98822 -0.010525 -0.152675 0 255 255
3.6782 0.113452 0.508781 0.907677 0.0210866 -0.41914 0 255 255
3.66176 0.136988 0.500533 0.840252 0.303365 -0.449385 0 255 255
3.67512 0.118228 0.504151 0.801287 -0.207006 -0.561326 0 255 255
3.65988 0.127562 0.496489 -0.720556 -0.0710438 0.689748 0 255 255
3.66887 0.129273 0.509349 0.962869 0.222543 -0.152834 0 255 255
3.6787 0.123269 0.509117 0.868541 -0.028526 -0.494795 0 255 255
3.67824 0.117457 0.509048 0.844434 -0.301859 -0.442506 0 255 255
3.65848 0.111859 0.526804 0.891165 0.1378 -0.432245 0 255 255
3.6675 0.0977644 0.512336 0.921788 -0.235879 -0.307682 0 255 255
3.65769 0.0978156 0.518034 0.970476 0.240029 -0.0237074 0 255 255
3.6769 0.113719 0.526709 0.887336 -0.223024 -0.403604 0 255 255
3.67613 0.107438 0.526301 0.933663 -0.211833 -0.288791 0 255 255
3.65804 0.102327 0.522388 0.925521 -0.0902092 -0.367796 0 255 255
3.65849 0.112341 0.51224 0.947518 -0.195387 -0.253048 0 255 255
3.65861 0.0967724 0.52295 0.963662 0.0690214 -0.258054 0 255 255
3.67055 0.112623 0.529253 0.896986 0.28716 -0.336089 0 255 255
3.67166 0.097972 0.520437 0.963133 -0.199295 -0.180711 0 255 255
3.65936 0.116443 0.512465 0.826246 0.0331893 -0.562331 0 255 255
3.67789 0.10342 0.512871 0.953828 0.0185667 -0.299778 0 255 255
3.65991 0.0981366 0.528543 0.996895 0.0376231 0.0691768 0 255 255
3.67891 0.0995486 0.515417 0.90472 -0.0381248 -0.424298 0 255 255
3.68027 0.0974776 0.5183 0.901258 -0.0608747 -0.428985 0 255 255
3.6811 0.112237 0.518292 0.985643 0.0236537 -0.167175 0 255 255
3.68212 0.103736 0.522593 0.975781 0.057875 -0.210956 0 255 255
3.67986 0.104821 0.51687 0.905129 -0.147983 -0.398552 0 255 255
3.68113 0.103147 0.51803 0.923813 -0.072406 -0.375936 0 255 255
3.68054 0.117067 0.514594 0.860968 -0.33249 -0.384949 0 255 255
3.67813 0.0985313 0.512021 0.946642 0.0194279 -0.321702 0 255 255
3.685 0.112904 0.524177 0.939728 0.15315 -0.305708 0 255 255
3.68257 0.101327 0.526669 0.944016 -0.0194712 -0.329324 0 255 255
3.68317 0.108637 0.526215 0.906795 -0.0588087 -0.41745 0 255 255
3.68118 0.109164 0.51843 0.986717 -0.138974 -0.084113 0 255 255
3.68249 0.0984564 0.522545 0.943903 0.0732568 -0.321996 0 255 255
3.67968 0.113897 0.516813 0.984712 0.00149464 -0.174182 0 255 255
3.68046 0.109058 0.514061 0.913808 -0.155688 -0.375122 0 255 255
3.66523 0.130599 0.519205 0.944024 0.3298 -0.00708382 0 255 255
3.6657 0.119013 0.521252 0.980933 0.164304 -0.103799 0 255 255
3.67316 0.123728 0.520765 0.9379 0.0851606 -0.336292 0 255 255
3.67462 0.118758 0.521477 0.92318 0.0873322 -0.374316 0 255 255
3.65774 0.133958 0.526249 0.986313 -0.133076 -0.0973493 0 255 255
3.66076 0.137269 0.512492 0.827632 -0.0472289 -0.55928 0 255 255
3.67153 0.123882 0.511715 0.932734 0.0237651 -0.35978 0 255 255
3.6666 0.132156 0.529148 0.992231 0.0656068 -0.105702 0 255 255
3.67126 0.128447 0.512616 0.937798 0.107721 -0.330046 0 255 255
3.66709 0.127451 0.527619 0.953089 0.102963 -0.284639 0 255 255
3.67367 0.127928 0.521038 0.8983 -0.0897134 -0.430126 0 255 255
3.67207 0.128376 0.517141 0.956493 0.0344135 -0.289719 0 255 255
3.67419 0.132128 0.52131 0.892288 -0.0185002 -0.451087 0 255 255
3.66808 0.11803 0.527169 0.985829 -0.167709 -0.00394949 0 255 255
3.67098 0.133025 0.513518 0.902642 -0.00471861 -0.430367 0 255 255
3.67232 0.137166 0.518322 0.929371 0.0606251 -0.364135 0 255 255
3.6715 0.137225 0.51379 0.904538 0.0445909 -0.424055 0 255 255
3.6747 0.136328 0.521582 0.897052 0.0281737 -0.441025 0 255 255
3.65901 0.136229 0.526077 0.917579 -0.340005 -0.206021 0 255 255
3.67262 0.119248 0.515327 0.893623 0.416795 -0.166494 0 255 255
3.67234 0.123805 0.516234 0.980222 0.0934216 -0.174462 0 255 255
3.67102 0.119695 0.511443 0.896694 0.354378 -0.265248 0 255 255
3.67259 0.132576 0.517414 0.932042 0.0112888 -0.362175 0 255 255
3.66757 0.12277 0.526091 0.973515 -0.00435155 -0.228584 0 255 255
3.68221 0.132827 0.519358 0.998842 -0.0150715 0.0456981 0 255 255
3.68131 0.123204 0.519365 0.997127 -0.0733716 0.0188324 0 255 255
3.68113 0.122218 0.52938 0.995072 -0.0125837 -0.0983508 0 255 255
3.68036 0.118064 0.524705 0.955788 0.276894 0.098985 0 255 255
3.68 0.136939 0.511567 0.871694 0.200209 -0.447288 0 255 255
3.68146 0.128682 0.514726 0.953001 -0.0652735 -0.295853 0 255 255
3.68059 0.123074 0.514994 0.96369 -0.0662219 -0.258683 0 255 255
3.67993 0.128942 0.511034 0.821272 0.0861214 -0.563999 0 255 255
3.68217 0.128822 0.519091 0.998567 -0.0263707 0.0465672 0 255 255
3.68149 0.132681 0.514992 0.95962 0.0486712 -0.277055 0 255 255
3.68126 0.117187 0.518965 0.997564 -0.0695479 0.00535154 0 255 255
3.68189 0.136755 0.517441 0.967713 0.0421471 -0.248507 0 255 255
3.63496 0.144532 0.501064 0.86881 0.0840549 -0.48796 0 255 255
3.62867 0.14934 0.492104 0.904505 0.0542493 -0.422998 0 255 255
3.63212 0.142473 0.496316 0.76765 0.21495 -0.603747 0 255 255
3.63582 0.150477 0.50245 0.883508 0.0762781 -0.462164 0 255 255
3.63465 0.149488 0.501624 0.880815 0.0673421 -0.468648 0 255 255
3.63633 0.138264 0.506672 0.955656 -0.147014 -0.255165 0 255 255
3.6324 0.157871 0.496715 0.891767 0.0341177 -0.451206 0 255 255
3.63606 0.140792 0.501869 0.935135 -0.0797397 -0.345202 0 255 255
3.63574 0.155324 0.502493 0.887135 0.00991258 -0.461403 0 255 255
3.63455 0.15445 0.501699 0.875292 0.00366416 -0.483581 0 255 255
3.63591 0.145631 0.502407 0.902667 0.0149617 -0.43008 0 255 255
3.64672 0.153476 0.498558 0.834278 -0.101834 -0.541859 0 255 255
3.64171 0.157927 0.494124 0.825243 0.393631 -0.405005 0 255 255
3.65194 0.147092 0.5074 0.904033 0.231901 -0.359092 0 255 255
3.63713 0.15255 0.506076 0.902685 0.0352509 -0.428856 0 255 255
3.64951 0.148661 0.505859 0.870381 0.282933 -0.402971 0 255 255
3.65178 0.151109 0.508378 0.929242 0.176725 -0.324466 0 255 255
3.64916 0.157046 0.506165 0.919595 0.0418761 -0.390629 0 255 255
3.63711 0.147803 0.50576 0.904721 0.0192866 -0.425568 0 255 255
3.64871 0.145488 0.501648 0.824089 0.108377 -0.555996 0 255 255
3.64305 0.151959 0.497832 0.930082 0.0571648 -0.362878 0 255 255
3.64879 0.152495 0.507355 0.869473 0.188412 -0.456638 0 255 255
3.64919 0.137869 0.505669 0.8933 0.298481 -0.336042 0 255 255
3.64634 0.14209 0.498011 0.760559 0.0733947 -0.645107 0 255 255
3.64798 0.157709 0.501463 0.881128 0.220082 -0.418543 0 255 255
3.65139 0.138263 0.503408 0.8933 0.298481 -0.336042 0 255 255
3.63765 0.158339 0.491133 0.853587 0.0461764 -0.518899 0 255 255
3.64375 0.146293 0.496864 0.861809 -0.302012 -0.407521 0 255 255
3.63688 0.14325 0.505426 0.959061 -0.0618121 -0.276371 0 255 255
3.63707 0.158177 0.50631 0.974487 0.077027 -0.210811 0 255 255
3.65211 0.144532 0.503329 0.852746 0.113541 -0.509835 0 255 255
3.64361 0.137894 0.49709 0.724145 -0.082067 -0.684748 0 255 255
3.63424 0.169337 0.501923 0.95611 0.0092293 -0.292862 0 255 255
3.62871 0.16887 0.491242 0.761648 0.046998 -0.646285 0 255 255
3.63096 0.167602 0.492782 0.930546 -0.0429101 -0.363653 0 255 255
3.63462 0.173036 0.501226 0.897874 0.0355376 -0.438815 0 255 255
3.63316 0.17722 0.503267 0.808583 -0.0939912 -0.580827 0 255 255
3.63557 0.165018 0.502579 0.950339 0.089111 -0.298187 0 255 255
3.63355 0.162618 0.498733 0.884019 -0.0189332 -0.467068 0 255 255
3.63465 0.1594 0.501288 0.840866 -0.0466789 -0.539227 0 255 255
3.63655 0.162916 0.507919 0.960261 0.0958611 -0.262124 0 255 255
3.63167 0.177642 0.492744 -0.75689 0.021732 0.653181 0 255 255
3.63565 0.160171 0.502536 0.915476 0.00909813 -0.40227 0 255 255
3.63476 0.16434 0.500877 0.897324 -0.0620102 -0.436994 0 255 255
3.6506 0.174859 0.504307 0.847754 0.345193 -0.402684 0 255 255
3.64301 0.16265 0.496789 0.709479 -0.0792877 -0.700252 0 255 255
3.63897 0.161727 0.492351 0.871993 0.219837 -0.437379 0 255 255
3.6392 0.158622 0.496174 0.786224 -0.201589 -0.584135 0 255 255
3.64781 0.172014 0.502544 0.81069 -0.00661168 -0.585439 0 255 255
3.65243 0.165675 0.504818 0.896507 0.310852 -0.315668 0 255 255
3.65428 0.174622 0.490385 -0.742463 -0.225399 0.630828 0 255 255
3.63672 0.172389 0.507058 0.948671 -0.139661 -0.283757 0 255 255
3.65221 0.17311 0.507349 0.980891 -0.114328 -0.157426 0 255 255
3.65651 0.166814 0.49033 0.828943 -0.118979 -0.546532 0 255 255
3.64627 0.163277 0.498763 0.824507 0.197183 -0.530384 0 255 255
3.64846 0.167085 0.502899 0.788853 0.0936877 -0.6074 0 255 255
3.65723 0.177521 0.493105 0.72709 -0.0714218 -0.682816 0 255 255
3.64817 0.167391 0.507084 0.959293 0.15401 -0.236724 0 255 255
3.64771 0.162341 0.502464 0.891481 0.00411371 -0.453038 0 255 255
3.63669 0.167608 0.508787 0.957617 -0.0423539 -0.284913 0 255 255
3.64045 0.145262 0.511175 0.934186 0.299267 -0.194258 0 255 255
3.63894 0.152358 0.511565 0.863766 0.00078311 -0.503892 0 255 255
3.64354 0.144476 0.525844 0.90018 -0.104687 -0.422749 0 255 255
3.63922 0.148339 0.516024 0.994111 0.0271944 -0.104899 0 255 255
3.63991 0.139227 0.521447 0.951279 -0.137377 -0.276035 0 255 255
3.6399 0.157458 0.520748 0.997831 -0.0516313 -0.0408454 0 255 255
3.64139 0.155688 0.515481 0.989219 -0.0835541 -0.12027 0 255 255
3.63758 0.157842 0.511534 0.933929 0.125699 -0.334628 0 255 255
3.64129 0.144473 0.521145 0.901285 -0.142315 -0.409185 0 255 255
3.64131 0.152318 0.524288 0.940211 0.0809722 -0.330829 0 255 255
3.6414 0.139185 0.524577 0.902807 -0.235698 -0.359703 0 255 255
3.65441 0.140923 0.521364 0.980356 -0.189984 0.052984 0 255 255
3.64102 0.148375 0.52169 0.922206 0.185113 -0.339514 0 255 255
3.63902 0.139309 0.516861 0.99179 -0.114771 -0.056397 0 255 255
3.63911 0.144471 0.516452 0.943381 0.107686 -0.313746 0 255 255
3.65265 0.152036 0.511599 0.992901 -0.0145395 -0.118055 0 255 255
3.65426 0.152934 0.516316 0.842555 0.192433 -0.503061 0 255 255
3.64165 0.140679 0.515347 0.986417 -0.10354 -0.127522 0 255 255
3.65594 0.137877 0.517801 0.970194 -0.201566 -0.134514 0 255 255
3.63734 0.148301 0.510854 0.972877 0.0345383 -0.228729 0 255 255
3.64102 0.157571 0.524854 0.983263 -0.00735363 -0.182042 0 255 255
3.6387 0.138175 0.512358 0.919637 -0.125723 -0.372105 0 255 255
3.63814 0.142937 0.511808 0.928297 0.0914467 -0.36042 0 255 255
3.64154 0.150678 0.51494 0.922246 -0.292724 -0.252535 0 255 255
3.63923 0.15733 0.515673 0.966407 0.000982763 -0.257015 0 255 255
3.63982 0.15226 0.521156 0.947205 0.0959727 -0.305927 0 255 255
3.65352 0.157187 0.511885 0.891001 -0.216562 -0.399022 0 255 255
3.64185 0.1736 0.529204 0.981091 -0.0785162 -0.176904 0 255 255
3.6399 0.177931 0.516574 0.89339 0.380674 -0.238624 0 255 255
3.63854 0.161443 0.512407 0.871873 -0.147574 -0.466967 0 255 255
3.65344 0.173614 0.512946 0.951645 0.265295 -0.154891 0 255 255
3.64842 0.17765 0.517629 0.97 0.0749108 -0.231276 0 255 255
3.63883 0.172296 0.513012 0.902615 -0.137928 -0.407752 0 255 255
3.64071 0.167918 0.521741 0.990154 -0.0462399 -0.132127 0 255 255
3.63989 0.165704 0.516129 0.834117 0.0490953 -0.549399 0 255 255
3.6487 0.163601 0.511762 0.888396 0.328107 -0.321088 0 255 255
3.64247 0.17877 0.527334 0.970211 -0.144717 -0.194289 0 255 255
3.63931 0.162455 0.515264 0.873299 -0.00145404 -0.487182 0 255 255
3.64031 0.17026 0.515487 0.959336 -0.193947 -0.205083 0 255 255
3.6408 0.162314 0.522908 0.999649 0.0112787 -0.0239781 0 255 255
3.6387 0.167478 0.513292 0.898397 -0.072963 -0.433082 0 255 255
3.64748 0.17331 0.511465 0.937934 0.292125 -0.18693 0 255 255
3.65651 0.178119 0.522941 0.984339 0.158828 0.0764837 0 255 255
3.6407 0.173117 0.521576 0.988558 0.0155083 -0.150039 0 255 255
3.64708 0.177992 0.512244 0.999585 -0.0187301 -0.0218768 0 255 255
3.64151 0.178417 0.522734 0.948074 -0.0105819 -0.317872 0 255 255
3.66032 0.141379 0.501845 0.881362 -0.105645 -0.460477 0 255 255
3.66584 0.153703 0.498986 0.804715 -0.0125813 -0.593528 0 255 255
3.66821 0.153006 0.502085 0.777607 -0.0168388 -0.628525 0 255 255
3.66346 0.1544 0.495876 0.759589 -0.112182 -0.640656 0 255 255
3.65924 0.146417 0.503334 0.925023 0.2603 -0.276723 0 255 255
3.66216 0.148951 0.496413 0.774998 -0.209299 -0.596299 0 255 255
3.65909 0.138701 0.497471 0.813691 0.0221625 -0.580876 0 255 255
3.66092 0.157085 0.491796 0.895398 -0.0221742 -0.444715 0 255 255
3.66061 0.149214 0.492659 0.790162 -0.0206964 -0.612549 0 255 255
3.67557 0.168369 0.507489 0.842649 -0.0839139 -0.531885 0 255 255
3.67566 0.178397 0.508157 0.850676 0.0835406 -0.519009 0 255 255
3.66153 0.178441 0.496426 0.866577 -0.0394628 -0.497481 0 255 255
3.66648 0.167823 0.50664 0.822993 -0.163938 -0.543881 0 255 255
3.66474 0.17061 0.503159 0.963268 0.0272287 -0.267159 0 255 255
3.6604 0.16888 0.492612 0.969263 0.106201 -0.221926 0 255 255
3.66317 0.164687 0.503356 0.787184 -0.211755 -0.579225 0 255 255
3.67598 0.153542 0.523316 0.87852 -0.0371934 -0.476256 0 255 255
3.67649 0.157749 0.523588 0.917833 -0.087173 -0.387277 0 255 255
3.66062 0.153026 0.517361 0.924034 0.26385 -0.276667 0 255 255
3.66093 0.157548 0.518238 0.87784 -0.109273 -0.466321 0 255 255
3.65757 0.15724 0.522527 0.926133 0.161547 -0.340851 0 255 255
3.66477 0.142192 0.51974 0.990685 0.0677536 0.118125 0 255 255
3.66633 0.139268 0.510119 0.844657 0.23281 -0.482031 0 255 255
3.65748 0.148634 0.513503 0.936098 -0.200691 -0.288867 0 255 255
3.65786 0.139609 0.530179 0.900416 0.014162 -0.4348 0 255 255
3.67254 0.149162 0.517437 0.888617 -0.259451 -0.378213 0 255 255
3.67318 0.154424 0.517779 0.960794 -0.275657 0.0298158 0 255 255
3.66645 0.14369 0.510702 0.92296 -0.0249462 -0.384086 0 255 255
3.65902 0.153691 0.513357 0.922451 -0.196482 -0.332385 0 255 255
3.65801 0.143823 0.512328 0.897274 0.2876 -0.33494 0 255 255
3.68082 0.149106 0.516727 0.895438 0.0624316 -0.440787 0 255 255
3.69107 0.157835 0.528839 0.950531 -0.187938 -0.247326 0 255 255
3.68309 0.147479 0.523028 0.994941 0.084438 -0.0544346 0 255 255
3.68265 0.141916 0.522147 0.980695 -0.0636075 -0.184909 0 255 255
3.68117 0.142889 0.515992 0.9493 0.072922 -0.305796 0 255 255
3.67275 0.167931 0.517596 0.880928 0.0564753 -0.469869 0 255 255
3.6737 0.158634 0.518052 0.994001 0.0850187 0.0688045 0 255 255
3.66943 0.164603 0.511762 0.876151 0.244536 -0.415404 0 255 255
3.66371 0.165762 0.528504 0.947737 0.179402 -0.263835 0 255 255
3.66307 0.161171 0.527741 0.960727 -0.124004 -0.248249 0 255 255
3.67701 0.161955 0.523861 0.904143 -0.00323548 -0.427218 0 255 255
3.67782 0.161961 0.512644 0.875452 0.174726 -0.450617 0 255 255
3.67801 0.177659 0.511199 0.848013 0.0928214 -0.521783 0 255 255
3.6578 0.176717 0.527953 0.991947 -0.0237851 -0.124398 0 255 255
3.6635 0.177563 0.521276 0.89574 0.294561 -0.332992 0 255 255
3.66582 0.17244 0.528059 0.960629 0.138531 -0.240835 0 255 255
3.67565 0.178028 0.522194 0.949443 -0.260561 -0.175116 0 255 255
3.67787 0.167978 0.513044 0.89555 -0.0691361 -0.439558 0 255 255
3.67797 0.173654 0.510932 0.863999 -0.0707862 -0.498493 0 255 255
3.6754 0.162404 0.519959 0.889739 0.00533489 -0.456439 0 255 255
3.66124 0.162083 0.519116 0.989555 -0.0869191 0.115006 0 255 255
3.67594 0.166821 0.522825 0.875312 0.0938383 -0.474366 0 255 255
3.69114 0.16578 0.529368 0.937775 0.157095 -0.309676 0 255 255
3.6826 0.17688 0.522291 0.97084 0.218986 -0.097546 0 255 255
3.681 0.16913 0.51806 0.859185 0.0427163 -0.509879 0 255 255
3.68319 0.177012 0.526753 0.944959 -0.273467 -0.179631 0 255 255
3.68027 0.173265 0.516478 0.909416 -0.0553317 -0.41219 0 255 255
3.6911 0.161808 0.529103 0.942959 0.0980559 -0.318141 0 255 255
3.66755 0.0981463 0.548557 0.952471 0.232383 0.196971 0 255 255
3.66344 0.113122 0.537991 0.984587 -0.0188708 0.173872 0 255 255
3.66499 0.113398 0.534398 0.996842 0.0252752 0.075279 0 255 255
3.67016 0.0986493 0.544531 0.991798 -0.0102112 0.12741 0 255 255
3.6681 0.107793 0.547475 0.967555 0.241052 -0.0757032 0 255 255
3.66864 0.103079 0.547487 0.952798 -0.12958 -0.274562 0 255 255
3.66513 0.101079 0.531013 0.959981 0.257762 -0.109525 0 255 255
3.6628 0.108951 0.532251 0.950691 0.177029 -0.25465 0 255 255
3.66107 0.101602 0.533114 0.994739 -0.0033946 -0.102385 0 255 255
3.66535 0.105148 0.531922 0.990586 0.119765 0.0662961 0 255 255
3.66323 0.112428 0.541607 0.998626 0.0127494 -0.0508225 0 255 255
3.66204 0.104118 0.53782 0.971996 0.0280627 -0.233317 0 255 255
3.67042 0.103252 0.540189 0.926246 0.373338 0.0518479 0 255 255
3.67049 0.102819 0.550742 0.987534 0.134968 -0.0810018 0 255 255
3.67117 0.103241 0.534299 0.972241 0.052221 0.228081 0 255 255
3.66036 0.097445 0.532898 0.979992 -0.0243527 -0.197541 0 255 255
3.68881 0.116871 0.547747 0.948558 -0.116699 -0.29431 0 255 255
3.67968 0.102473 0.543591 0.990747 -0.115874 -0.0706655 0 255 255
3.68732 0.108501 0.539039 0.931594 0.137112 -0.33665 0 255 255
3.68 0.104806 0.548991 0.99629 -0.0649303 -0.0564899 0 255 255
3.68052 0.109025 0.549265 0.989226 -0.142416 0.0339174 0 255 255
3.68804 0.0981238 0.542673 0.998425 0.0550384 -0.0108396 0 255 255
3.68715 0.108108 0.543698 0.981237 0.0478111 -0.186783 0 255 255
3.68938 0.0967679 0.550849 0.995502 -0.0753596 0.0574107 0 255 255
3.68944 0.102833 0.551252 0.991086 0.0515249 -0.122855 0 255 255
3.68795 0.102809 0.538649 0.981296 0.00125351 -0.192498 0 255 255
3.69017 0.0985039 0.549743 0.976695 0.108629 -0.185113 0 255 255
3.68909 0.107349 0.549636 0.960653 0.0347936 -0.275564 0 255 255
3.68478 0.0973408 0.537085 0.984534 0.077424 -0.157156 0 255 255
3.68129 0.115354 0.549675 0.979111 -0.202079 0.0224841 0 255 255
3.68702 0.0969654 0.532411 0.92263 0.208903 -0.324213 0 255 255
3.68785 0.102043 0.542937 0.987436 0.121145 -0.101457 0 255 255
3.68045 0.108783 0.544 0.98444 -0.16152 -0.0692054 0 255 255
3.6891 0.10314 0.54809 0.968531 0.0633013 -0.240707 0 255 255
3.68754 0.113799 0.538688 0.996039 0.0695672 -0.0553809 0 255 255
3.68863 0.096686 0.546403 0.965989 0.0658044 -0.250071 0 255 255
3.67949 0.100587 0.548718 0.995957 0.00677895 -0.0895773 0 255 255
3.68727 0.1138 0.543731 0.950353 -0.0958109 -0.296057 0 255 255
3.68334 0.105449 0.531342 0.996824 -0.0761011 -0.0234704 0 255 255
3.66414 0.133716 0.54084 0.936102 0.299298 -0.184754 0 255 255
3.66423 0.128217 0.548224 0.964712 -0.254684 0.066836 0 255 255
3.66264 0.122084 0.536832 0.974965 -0.195998 -0.105012 0 255 255
3.66352 0.137116 0.54179 0.983754 0.0682958 -0.166024 0 255 255
3.66349 0.118223 0.535647 0.937135 0.33812 0.0863295 0 255 255
3.66872 0.126643 0.536832 0.969038 0.225252 0.101125 0 255 255
3.66611 0.133656 0.544141 0.979281 -0.0402896 -0.198456 0 255 255
3.66257 0.118121 0.531853 0.898094 0.145624 -0.414994 0 255 255
3.66771 0.128152 0.542668 0.992149 0.0389234 0.118848 0 255 255
3.66331 0.117343 0.541346 0.968328 -0.0298528 -0.24789 0 255 255
3.66363 0.126287 0.543027 0.927677 -0.314503 0.201253 0 255 255
3.6692 0.121954 0.53528 0.905168 0.36861 -0.211653 0 255 255
3.66391 0.133324 0.536797 0.941355 0.243471 -0.233607 0 255 255
3.68361 0.127637 0.549813 0.974683 -0.0471873 0.218555 0 255 255
3.69063 0.135682 0.54252 0.943729 -0.0641791 -0.324434 0 255 255
3.68438 0.133956 0.550223 0.986761 -0.129634 -0.0974584 0 255 255
3.69134 0.131813 0.546673 0.969034 -0.147132 -0.198308 0 255 255
3.67952 0.121646 0.531136 0.965604 -0.169569 -0.19712 0 255 255
3.68373 0.135796 0.540527 0.982089 0.177944 -0.0619374 0 255 255
3.68217 0.126658 0.533042 0.988316 -0.0675846 -0.136618 0 255 255
3.69212 0.135978 0.551372 0.998421 -0.0529309 -0.018786 0 255 255
3.68122 0.117654 0.534139 0.928062 -0.309478 -0.20718 0 255 255
3.68187 0.122341 0.533798 0.919066 -0.16082 -0.359798 0 255 255
3.68222 0.131387 0.531802 0.995373 -0.0170779 -0.0945561 0 255 255
3.69049 0.126179 0.546987 0.963712 -0.18681 -0.190684 0 255 255
3.68305 0.121381 0.536859 0.997225 -0.055849 -0.0492353 0 255 255
3.68202 0.11766 0.538618 0.943686 0.259678 -0.204996 0 255 255
3.69217 0.135422 0.546223 0.985138 -0.0661578 -0.158512 0 255 255
3.6906 0.131671 0.542253 0.946392 -0.113991 -0.302238 0 255 255
3.69208 0.131954 0.551104 0.989769 -0.142569 0.00564284 0 255 255
3.68207 0.126757 0.536901 0.947448 0.0960586 -0.305148 0 255 255
3.68252 0.13605 0.536304 0.979065 0.0215025 -0.20241 0 255 255
3.66838 0.102789 0.5688 0.956972 0.287392 -0.0401175 0 255 255
3.66814 0.102771 0.55687 0.981706 -0.00597124 0.190308 0 255 255
3.66816 0.112862 0.551772 0.909157 0.269516 0.317481 0 255 255
3.66788 0.101611 0.551826 0.979467 -0.20092 0.0165938 0 255 255
3.66882 0.0981255 0.567166 0.976447 -0.179831 0.11921 0 255 255
3.67002 0.107457 0.552338 0.989213 0.0754369 -0.125563 0 255 255
3.66792 0.0976739 0.561401 0.99572 0.0897814 0.0219163 0 255 255
3.66794 0.0982364 0.554108 0.934232 0.21379 0.285491 0 255 255
3.66392 0.108756 0.555019 0.956579 0.175219 0.232929 0 255 255
3.66706 0.107437 0.567952 0.956546 0.1114 0.269461 0 255 255
3.66628 0.0989696 0.557917 0.958592 0.152606 0.240444 0 255 255
3.66387 0.0973131 0.571432 0.993413 0.0836249 0.0783386 0 255 255
3.66803 0.102341 0.562545 0.996528 -0.0622128 -0.0553256 0 255 255
3.67024 0.0981852 0.555118 0.934232 0.21379 0.285491 0 255 255
3.66768 0.106692 0.563492 0.969699 0.233902 -0.0705274 0 255 255
3.68987 0.111205 0.556613 0.993624 -0.111837 -0.0143006 0 255 255
3.6902 0.102924 0.555711 0.999738 -0.00130902 -0.0228718 0 255 255
3.68025 0.10548 0.564925 0.992194 0.0425848 0.11721 0 255 255
3.68777 0.100343 0.562833 0.948214 -0.30594 0.0853893 0 255 255
3.69028 0.115555 0.561723 0.983907 -0.112839 0.138546 0 255 255
3.68044 0.114099 0.560834 0.991134 -0.115514 0.0656488 0 255 255
3.68951 0.11092 0.551791 0.985015 -0.0679219 -0.158529 0 255 255
3.68033 0.100469 0.553318 0.99088 -0.0138462 -0.134037 0 255 255
3.68942 0.107789 0.561914 0.980384 -0.150011 0.127844 0 255 255
3.68034 0.107149 0.554416 0.997825 -0.0632871 -0.0184127 0 255 255
3.68117 0.100349 0.55793 0.999901 0.00582612 -0.0127895 0 255 255
3.68111 0.113497 0.554828 0.982514 -0.176641 0.0588648 0 255 255
3.6883 0.116963 0.568797 0.995585 0.0842107 0.0414498 0 255 255
3.6805 0.100891 0.563951 0.905228 0.24379 0.348035 0 255 255
3.69036 0.116609 0.551474 0.985461 -0.0863012 -0.146353 0 255 255
3.67884 0.106372 0.571693 0.98275 0.0882412 0.162529 0 255 255
3.69032 0.117099 0.556654 0.998926 -0.0463416 -5.35754e-05 0 255 255
3.68027 0.112213 0.566039 0.987549 -0.079519 0.135733 0 255 255
3.68042 0.10738 0.559728 0.998871 0.0376631 0.0289576 0 255 255
3.66788 0.117718 0.551905 0.976195 0.18503 -0.113173 0 255 255
3.66809 0.122497 0.552293 0.948989 -0.302622 0.088546 0 255 255
3.66427 0.127533 0.567013 0.87896 -0.119375 0.461713 0 255 255
3.66177 0.117516 0.571668 0.979762 -0.064852 0.189371 0 255 255
3.66558 0.133558 0.562156 0.954409 0.28426 0.0911075 0 255 255
3.66761 0.122022 0.557631 0.989223 -0.113982 0.0919008 0 255 255
3.66791 0.117185 0.556117 0.988851 0.0200692 -0.147548 0 255 255
3.66323 0.135219 0.553691 0.931631 -0.26023 0.253663 0 255 255
3.66259 0.12386 0.561594 0.992378 -0.121381 -0.0212639 0 255 255
3.67053 0.132518 0.553126 0.933021 0.220095 0.284659 0 255 255
3.66898 0.126007 0.558072 0.993757 -0.0777782 0.0799899 0 255 255
3.66705 0.137496 0.567185 0.998512 -0.0364975 -0.040519 0 255 255
3.68106 0.118609 0.566454 0.980124 -0.193229 0.0449301 0 255 255
3.68955 0.124571 0.568233 0.960813 -0.265416 -0.0799533 0 255 255
3.69208 0.136533 0.556545 0.996099 -0.0198203 0.0859859 0 255 255
3.69043 0.134376 0.568172 0.988927 -0.145423 0.0295941 0 255 255
3.69112 0.121268 0.561396 0.99394 -0.0512669 -0.0972365 0 255 255
3.69036 0.121149 0.556924 0.998043 0.0105438 -0.0616411 0 255 255
3.68456 0.134589 0.560822 0.994159 -0.0662292 0.0852174 0 255 255
3.69124 0.130876 0.55687 0.989844 -0.140538 0.0214104 0 255 255
3.68265 0.119481 0.554551 0.979666 -0.196172 0.0420903 0 255 255
3.69039 0.125199 0.557194 0.996317 -0.0661024 -0.0546207 0 255 255
3.68523 0.13389 0.554821 0.996161 -0.0852424 -0.0199065 0 255 255
3.68224 0.122237 0.560691 0.957592 -0.263102 0.117455 0 255 255
3.68172 0.117992 0.560416 0.9685 -0.221896 0.113007 0 255 255
3.69084 0.126504 0.551785 0.989797 -0.141074 0.0200148 0 255 255
3.69039 0.120647 0.551743 0.989378 -0.0971254 -0.108159 0 255 255
3.64248 0.168417 0.531426 0.941893 0.0704061 -0.328451 0 255 255
3.65695 0.170957 0.531209 0.973469 -0.0708212 -0.217584 0 255 255
3.64259 0.163082 0.531345 0.921661 -0.0698332 -0.381659 0 255 255
3.65389 0.178967 0.532901 0.933575 0.339274 -0.115457 0 255 255
3.65653 0.176428 0.537109 0.947191 0.16074 -0.277474 0 255 255
3.64479 0.168695 0.536385 0.941893 0.0704061 -0.328451 0 255 255
3.65715 0.168143 0.540869 0.993243 -0.113553 0.0239693 0 255 255
3.64334 0.174062 0.536357 0.961231 -0.00305644 -0.275727 0 255 255
3.65574 0.162213 0.534008 0.990787 0.104712 0.0858866 0 255 255
3.64554 0.144463 0.531525 0.970043 0.129984 -0.205234 0 255 255
3.64407 0.178232 0.537991 0.949959 -0.257439 -0.176926 0 255 255
3.64331 0.179159 0.532426 0.942197 -0.277893 -0.18719 0 255 255
3.66687 0.158167 0.542227 0.939821 0.159754 -0.302019 0 255 255
3.67196 0.148274 0.550707 0.949754 -0.27387 0.151537 0 255 255
3.66445 0.148673 0.543697 0.936261 0.0183008 0.350827 0 255 255
3.66314 0.15379 0.551273 0.9851 -0.0229333 -0.17045 0 255 255
3.66454 0.148037 0.548482 0.937199 0.330365 -0.111876 0 255 255
3.66781 0.153263 0.542645 0.969709 0.243059 0.0242063 0 255 255
3.66399 0.139363 0.537071 0.976073 -0.0138739 -0.216999 0 255 255
3.66281 0.14181 0.5334 0.98355 0.00801084 -0.180457 0 255 255
3.66572 0.142765 0.547127 0.976469 -0.165637 -0.138102 0 255 255
3.69074 0.147716 0.543321 0.961259 -0.0674571 -0.267265 0 255 255
3.69004 0.151552 0.539178 0.96457 -0.126211 -0.231678 0 255 255
3.69097 0.156479 0.533776 0.956806 -0.27614 -0.0909341 0 255 255
3.68931 0.151376 0.53478 0.935391 -0.280973 -0.214705 0 255 255
3.68915 0.141959 0.539217 0.943581 -0.0383427 -0.328915 0 255 255
3.6849 0.138169 0.550496 0.99847 0.00712385 -0.0548422 0 255 255
3.68665 0.142454 0.533836 0.919185 -0.201947 -0.338106 0 255 255
3.69157 0.151292 0.542875 0.964865 -0.0911412 -0.24643 0 255 255
3.68375 0.15592 0.543773 0.991021 0.12878 -0.0359589 0 255 255
3.68509 0.14664 0.546455 0.993907 -0.0980844 -0.0502802 0 255 255
3.68459 0.155887 0.548361 0.993411 0.0961925 0.0623071 0 255 255
3.69001 0.147547 0.538911 0.962204 -0.123311 -0.242812 0 255 255
3.68156 0.151782 0.53436 0.917835 -0.087186 -0.387269 0 255 255
3.69129 0.15689 0.538517 0.987204 -0.141164 -0.0741661 0 255 255
3.69069 0.141699 0.54292 0.984249 -0.174743 -0.0267923 0 255 255
3.68425 0.146685 0.54188 0.95345 -0.0789056 -0.291045 0 255 255
3.68484 0.151257 0.547408 0.991684 0.105963 0.0730337 0 255 255
3.69231 0.151467 0.547291 0.991593 -0.0628166 -0.113125 0 255 255
3.69222 0.141438 0.546624 0.992593 0.0102931 -0.121054 0 255 255
3.68476 0.150885 0.542153 0.973175 0.0556482 -0.223233 0 255 255
3.68393 0.157633 0.538665 0.98202 0.0481989 -0.182519 0 255 255
3.69235 0.155478 0.547559 0.998276 -0.0184339 -0.0557304 0 255 255
3.69228 0.147455 0.547024 0.990984 -0.00661349 -0.133815 0 255 255
3.69161 0.155297 0.543142 0.974346 -0.113246 -0.194485 0 255 255
3.66699 0.159317 0.547532 0.98564 -0.0258383 0.166872 0 255 255
3.66542 0.161358 0.532318 0.951029 0.00877515 -0.308978 0 255 255
3.66427 0.163773 0.547616 0.950082 0.291103 -0.112268 0 255 255
3.66727 0.168713 0.5426 0.99814 -0.0512058 -0.0330748 0 255 255
3.66392 0.166187 0.533052 0.98152 -0.18843 -0.0333599 0 255 255
3.66334 0.173609 0.536905 0.951392 0.298498 0.0758476 0 255 255
3.66587 0.163659 0.542596 0.992182 0.0341294 -0.120041 0 255 255
3.66394 0.165594 0.537254 0.907259 0.419453 -0.0306693 0 255 255
3.65789 0.170516 0.535948 0.998387 0.0566968 0.00285793 0 255 255
3.66475 0.168115 0.548328 0.986466 0.149303 -0.0677772 0 255 255
3.66512 0.171494 0.547789 0.961253 -0.268479 0.0625472 0 255 255
3.66588 0.161309 0.537181 0.983377 0.069269 0.167845 0 255 255
3.66635 0.170817 0.533362 0.998157 -0.0402486 0.0454218 0 255 255
3.6637 0.168726 0.551183 0.974912 0.00236152 -0.22258 0 255 255
3.65755 0.172596 0.542011 0.993697 0.0316462 -0.107542 0 255 255
3.66391 0.165867 0.543258 0.949518 -0.207707 -0.235104 0 255 255
3.6835 0.160557 0.544721 0.998723 0.0504439 0.00265571 0 255 255
3.69245 0.167512 0.54836 0.997898 -0.0373345 0.0529722 0 255 255
3.68336 0.166482 0.535314 0.982265 -0.0202302 -0.186404 0 255 255
3.69249 0.171523 0.548627 0.997556 0.0245216 0.0654245 0 255 255
3.68394 0.164365 0.539742 0.997043 0.0709501 0.0295329 0 255 255
3.69175 0.162657 0.538562 0.998555 -0.0482613 -0.0236568 0 255 255
3.69182 0.162005 0.533473 0.994056 -0.0714245 -0.0821699 0 255 255
3.6924 0.161495 0.547959 0.999685 -0.0198255 -0.0153697 0 255 255
3.68292 0.169446 0.541354 0.995882 0.0790594 0.0443684 0 255 255
3.69186 0.165984 0.533738 0.998513 0.0214782 -0.0501095 0 255 255
3.68243 0.178786 0.543241 0.993649 0.0300396 0.108436 0 255 255
3.69178 0.166649 0.538828 0.991556 -0.0750958 -0.105727 0 255 255
3.68267 0.17411 0.542297 0.989675 -0.00610998 0.1432 0 255 255
3.69334 0.170382 0.542779 0.997177 -0.0640122 -0.0392526 0 255 255
3.6926 0.176846 0.543893 0.99446 0.0598365 -0.0864243 0 255 255
3.69153 0.178513 0.537431 0.95315 0.104614 -0.283834 0 255 255
3.69151 0.17219 0.534487 0.922696 0.148947 -0.355593 0 255 255
3.68358 0.160954 0.549995 0.988047 0.0999054 0.1174 0 255 255
3.69223 0.172399 0.538872 0.983565 0.0318394 -0.177726 0 255 255
3.68253 0.17323 0.531826 0.965462 -0.202633 -0.163775 0 255 255
3.69251 0.16685 0.543228 0.991849 -0.117842 -0.0484636 0 255 255
3.68313 0.167538 0.546144 0.996021 0.0845868 0.0280475 0 255 255
3.68388 0.177433 0.536659 0.993361 0.0367795 -0.108999 0 255 255
3.68304 0.17743 0.532098 0.976966 0.202266 0.0680123 0 255 255
3.68336 0.173227 0.536386 0.994399 -0.10103 -0.0310319 0 255 255
3.69253 0.175534 0.548894 0.999889 -0.00958891 0.0114002 0 255 255
3.69206 0.161077 0.543185 0.993666 -0.077658 -0.0812167 0 255 255
3.682 0.174989 0.548244 0.989293 0.0764083 0.124343 0 255 255
3.68334 0.165616 0.55095 0.980939 0.130694 0.143798 0 255 255
3.66422 0.147211 0.570834 0.94438 0.312807 0.10148 0 255 255
3.67163 0.153 0.557647 0.990686 0.101908 0.0903111 0 255 255
3.66755 0.143726 0.567681 0.983029 0.151237 -0.103829 0 255 255
3.66461 0.138284 0.5705 0.96835 -0.236942 0.0784641 0 255 255
3.66532 0.158283 0.56754 0.998395 -0.0394223 -0.0406697 0 255 255
3.66709 0.14735 0.552989 0.965973 0.0787412 -0.246367 0 255 255
3.66455 0.152291 0.566967 0.991911 0.0754365 0.102086 0 255 255
3.6645 0.15797 0.568373 0.953069 -0.0713488 0.294225 0 255 255
3.6652 0.154187 0.561529 0.971912 0.0290444 0.233545 0 255 255
3.66503 0.153982 0.566593 0.925525 -0.0587617 0.3741 0 255 255
3.66459 0.140865 0.554371 0.960108 -0.274905 -0.0511885 0 255 255
3.65858 0.157209 0.569247 0.965522 -0.258728 0.0287434 0 255 255
3.66474 0.149692 0.565646 0.97708 0.0486194 0.207247 0 255 255
3.66593 0.138422 0.562308 0.988363 -0.0321307 -0.148681 0 255 255
3.68408 0.143857 0.562764 0.982453 0.16527 0.0864403 0 255 255
3.6825 0.157896 0.561031 0.98389 0.0904638 0.154195 0 255 255
3.69099 0.147263 0.558312 0.969328 0.226943 0.0943396 0 255 255
3.68474 0.143122 0.556749 0.989597 0.13019 0.0612207 0 255 255
3.69133 0.140984 0.557543 0.978413 -0.206655 -0.00141281 0 255 255
3.69226 0.152075 0.552444 0.991189 0.0142926 0.131679 0 255 255
3.68507 0.138827 0.561096 0.993723 0.0595969 0.0946702 0 255 255
3.69134 0.145606 0.563016 0.991042 0.105747 0.0815621 0 255 255
3.69221 0.146038 0.552042 0.994571 -0.0185279 0.102396 0 255 255
3.6834 0.152448 0.554057 0.977737 0.15179 0.144881 0 255 255
3.6923 0.156099 0.552712 0.988645 -0.0695863 0.133184 0 255 255
3.68981 0.152846 0.567514 0.984431 0.168403 0.0503614 0 255 255
3.68316 0.157102 0.555018 0.989514 0.0764519 0.122547 0 255 255
3.68574 0.138109 0.555094 0.998458 0.0221525 -0.0508925 0 255 255
3.68308 0.148913 0.564434 0.974539 0.200629 0.100112 0 255 255
3.69215 0.140002 0.55164 0.997915 0.0127767 0.0632624 0 255 255
3.68244 0.149662 0.570498 0.969649 0.147227 0.195206 0 255 255
3.6845 0.147757 0.557714 0.985608 0.157004 0.0626661 0 255 255
3.68133 0.154403 0.566802 0.981287 0.147803 0.123409 0 255 255
3.68274 0.153223 0.560063 0.985098 0.139989 0.0999213 0 255 255
3.69065 0.153549 0.559081 0.969845 0.0706093 0.233272 0 255 255
3.68453 0.145091 0.551933 0.999132 0.0144431 0.0390725 0 255 255
3.6705 0.177149 0.570424 0.961473 0.191412 0.19731 0 255 255
3.6711 0.17687 0.56432 0.999245 -0.0161827 0.0353292 0 255 255
3.67128 0.167261 0.567192 0.853555 -0.121743 0.50658 0 255 255
3.6677 0.178717 0.557663 0.977801 -0.207079 -0.0319854 0 255 255
3.66663 0.169962 0.55689 0.980954 0.00461504 -0.194186 0 255 255
3.66144 0.173399 0.567851 0.84335 0.0727006 0.532424 0 255 255
3.66314 0.177909 0.55824 0.995489 -0.0835592 0.0449362 0 255 255
3.66125 0.177927 0.567129 0.8306 0.126754 0.542252 0 255 255
3.67199 0.162241 0.562544 0.996176 0.0825811 0.0285378 0 255 255
3.66483 0.162745 0.569173 0.956347 -0.0443797 0.288844 0 255 255
3.66349 0.176985 0.562776 0.996383 0.0729803 -0.0435281 0 255 255
3.66911 0.163439 0.554091 0.895317 0.373055 0.243387 0 255 255
3.66393 0.17888 0.553135 0.972012 0.226476 0.0624546 0 255 255
3.66566 0.162346 0.566443 0.969609 -0.0513125 0.239218 0 255 255
3.67993 0.177176 0.560932 0.995297 0.0825549 -0.0506761 0 255 255
3.69248 0.17622 0.554051 0.991295 0.0547835 0.119724 0 255 255
3.68151 0.163005 0.562692 0.988806 0.089424 0.11944 0 255 255
3.69233 0.160123 0.55298 0.999898 -0.00962006 0.0105639 0 255 255
3.68216 0.162193 0.556666 0.983735 0.0906698 0.15506 0 255 255
3.69244 0.172196 0.553783 0.999898 -0.00961537 0.0105582 0 255 255
3.69239 0.166159 0.553382 0.999898 -0.00962401 0.0105585 0 255 255
3.68072 0.170081 0.561814 0.991895 0.111271 0.0613438 0 255 255
3.68884 0.172929 0.562125 0.950705 -0.301557 0.0722729 0 255 255
3.6883 0.159535 0.566774 0.959994 0.183851 0.211211 0 255 255
3.67982 0.176749 0.55559 0.977554 0.104887 0.182721 0 255 255
3.68087 0.163812 0.568754 0.994711 0.0278952 0.098855 0 255 255
3.68157 0.171163 0.553269 0.966941 0.204288 0.152617 0 255 255
3.68064 0.168536 0.569731 0.806257 -0.0179585 0.591293 0 255 255
3.68192 0.16688 0.557629 0.978546 0.131478 0.158622 0 255 255
3.6811 0.159101 0.567778 0.995034 0.0591692 0.0800402 0 255 255
3.68042 0.173273 0.570709 0.994385 0.0237451 -0.103124 0 255 255
3.65947 0.0256929 0.572772 0.976568 0.00554203 0.215136 0 255 255
3.65981 0.0316824 0.574226 0.996895 -0.0574093 0.0539026 0 255 255
3.66023 0.0274562 0.57684 0.995534 -0.0943838 -0.00184599 0 255 255
3.65886 0.0229066 0.577917 0.983523 0.152262 0.0974616 0 255 255
3.6605 0.0322175 0.572418 0.995928 -0.0556771 0.0709046 0 255 255
3.66079 0.0223636 0.572781 0.961318 0.147617 0.232543 0 255 255
3.66262 0.0466836 0.572399 0.976916 -0.163577 0.137395 0 255 255
3.66226 0.0513372 0.57737 0.966193 -0.152073 0.208195 0 255 255
3.66168 0.0361105 0.58414 0.999649 -0.0132638 -0.0229499 0 255 255
3.66139 0.046703 0.576194 0.93407 -0.205733 0.291867 0 255 255
3.66572 0.0499465 0.574299 0.887713 -0.356137 0.291775 0 255 255
3.66136 0.0422344 0.585654 0.986982 -0.155069 0.0426662 0 255 255
3.66235 0.0412908 0.574075 0.997001 -0.0686566 0.0357139 0 255 255
3.66145 0.0448276 0.58071 0.975164 0.221033 0.0140955 0 255 255
3.67757 0.0423798 0.57277 0.974476 0.0318484 0.222222 0 255 255
3.66088 0.0371402 0.574172 0.96823 -0.233061 0.0906288 0 255 255
3.68181 0.0496249 0.574945 0.941519 0.303159 0.147091 0 255 255
3.66586 0.0661497 0.578198 0.911595 0.229743 0.340901 0 255 255
3.66224 0.0557878 0.583136 0.987252 -0.113684 0.111399 0 255 255
3.66555 0.0716858 0.573632 0.994601 0.0895164 0.0524962 0 255 255
3.6636 0.0568851 0.577012 0.959683 -0.255206 0.117804 0 255 255
3.67787 0.0578117 0.575161 0.988355 -0.127331 0.0833128 0 255 255
3.66264 0.0627555 0.579158 0.913438 0.190479 0.35965 0 255 255
3.66336 0.0724238 0.576618 0.988195 0.0584016 0.141635 0 255 255
3.66629 0.061094 0.576452 0.974176 -0.169627 0.149022 0 255 255
3.66377 0.068212 0.586107 0.98193 0.0981477 0.161804 0 255 255
3.66433 0.066772 0.575047 0.977439 -0.195213 0.0806547 0 255 255
3.68075 0.0625009 0.576881 0.964077 -0.141433 0.22484 0 255 255
3.68164 0.0746891 0.576973 0.97921 0.191572 0.0666991 0 255 255
3.68108 0.0561227 0.576097 0.988355 -0.127331 0.0833128 0 255 255
3.67839 0.0620821 0.575437 0.982751 0.168113 -0.0770586 0 255 255
3.6812 0.0686015 0.576928 0.99769 -0.0663804 -0.0144471 0 255 255
3.66362 0.0930162 0.57828 0.990447 0.135397 0.0261066 0 255 255
3.67785 0.0844988 0.574278 0.987787 0.134923 0.0779291 0 255 255
3.66672 0.0776989 0.573984 0.965577 -0.237099 0.106981 0 255 255
3.66353 0.0763489 0.576627 0.928431 -0.0173692 0.3711 0 255 255
3.66332 0.0960428 0.583122 0.916636 0.333547 0.220285 0 255 255
3.66377 0.0810901 0.572173 0.972988 0.219346 0.0719876 0 255 255
3.66622 0.0904655 0.577658 0.808051 -0.281276 0.517627 0 255 255
3.662 0.077843 0.582127 0.992814 0.0426847 0.111793 0 255 255
3.66303 0.0824139 0.577016 0.957393 -0.0268976 0.287531 0 255 255
3.66706 0.0870762 0.575996 0.987319 -0.0321736 0.155452 0 255 255
3.66658 0.0824412 0.572537 0.961141 0.250006 0.117071 0 255 255
3.6631 0.0962958 0.577305 0.992151 -0.123705 -0.0182708 0 255 255
3.66228 0.0820706 0.583105 0.998465 -0.044742 0.0326385 0 255 255
3.66348 0.0773784 0.572801 0.965577 -0.237099 0.106981 0 255 255
3.67992 0.0839639 0.580598 0.963404 -0.114514 0.242362 0 255 255
3.67823 0.0776651 0.574145 0.959008 0.282506 0.0222295 0 255 255
3.67978 0.0795293 0.57996 0.980841 -0.0425545 0.190104 0 255 255
3.65467 0.0493138 0.653783 -0.470604 -0.336443 -0.815682 0 255 255
3.65689 0.044949 0.654421 0.706212 0.417716 0.571645 0 255 255
3.66229 0.0528287 0.648867 0.550166 0.13807 0.823562 0 255 255
3.6583 0.0484882 0.652935 -0.441874 -0.345438 -0.827901 0 255 255
3.65778 0.0383453 0.652648 0.739954 0.207777 0.639764 0 255 255
3.66774 0.0429962 0.644076 0.629187 -0.159268 0.760761 0 255 255
3.66397 0.0473974 0.648494 0.798279 0.0419057 0.600828 0 255 255
3.6688 0.0526622 0.651291 0.752114 0.280733 0.59625 0 255 255
3.66628 0.0413361 0.646354 0.75259 0.0257075 0.657987 0 255 255
3.66363 0.0437466 0.648186 0.703305 -0.142855 0.696387 0 255 255
3.6636 0.0384509 0.647187 0.73899 0.000821908 0.673716 0 255 255
3.66835 0.0516586 0.643433 -0.467995 -0.38062 -0.797564 0 255 255
3.66665 0.0471384 0.646264 -0.730076 -0.0041714 -0.683353 0 255 255
3.66234 0.057224 0.64851 0.416122 -0.0355299 0.908614 0 255 255
3.67757 0.107471 0.583939 0.972902 0.201646 0.113139 0 255 255
3.6778 0.10282 0.582943 0.986302 0.153097 0.0613962 0 255 255
3.66544 0.0970368 0.581832 0.916636 0.333547 0.220285 0 255 255
3.66913 0.111518 0.576118 0.995701 -0.0924103 0.00628735 0 255 255
3.6686 0.116458 0.572342 0.99668 0.0812373 0.00538592 0 255 255
3.66947 0.11602 0.577078 0.99639 0.0594575 0.0605958 0 255 255
3.68399 0.112095 0.588271 0.997295 0.0484832 0.0552454 0 255 255
3.6847 0.107145 0.581901 0.897552 -0.212705 0.386209 0 255 255
3.67866 0.0976719 0.575821 0.997394 0.0587801 0.041832 0 255 255
3.67843 0.102291 0.576809 0.800021 -0.00595725 0.599943 0 255 255
3.6786 0.110999 0.572676 0.982977 0.00403781 0.183687 0 255 255
3.6782 0.106924 0.577798 0.994582 0.0278627 0.10015 0 255 255
3.68592 0.114429 0.576021 0.953961 -0.124054 0.273074 0 255 255
3.66728 0.131726 0.572473 0.964088 -0.213888 0.157436 0 255 255
3.66351 0.127373 0.572267 0.845833 -0.252847 0.469717 0 255 255
3.67096 0.137423 0.579133 0.989637 0.135113 0.0486054 0 255 255
3.6602 0.127424 0.579654 0.887079 -0.0340558 0.46036 0 255 255
3.66201 0.133701 0.581479 0.944238 0.296069 0.144072 0 255 255
3.6626 0.137111 0.583858 0.899039 -0.290094 0.327984 0 255 255
3.67985 0.133487 0.580899 0.976019 -0.15233 0.155509 0 255 255
3.67863 0.117786 0.573799 0.967766 -0.0796671 0.23892 0 255 255
3.68916 0.125265 0.573864 0.985274 -0.118112 0.123628 0 255 255
3.67994 0.128526 0.574496 0.942852 -0.185839 0.276577 0 255 255
3.68123 0.132447 0.574067 0.934169 -0.1793 0.308511 0 255 255
3.68038 0.137803 0.581179 0.982408 -0.128309 0.135692 0 255 255
3.68718 0.122597 0.580753 0.933815 -0.270777 0.233815 0 255 255
3.67942 0.12423 0.574217 0.963522 -0.168884 0.207615 0 255 255
3.68404 0.118344 0.588687 0.968886 -0.187924 0.161073 0 255 255
3.6904 0.132868 0.573291 0.971416 -0.233555 0.0424691 0 255 255
3.68881 0.130071 0.5798 0.973887 -0.221178 0.0512298 0 255 255
3.68793 0.119681 0.574572 0.961271 -0.216054 0.171109 0 255 255
3.67868 0.127195 0.580835 0.973823 -0.181803 0.136446 0 255 255
3.68401 0.117879 0.583341 0.968886 -0.187924 0.161073 0 255 255
3.65487 0.179009 0.592199 0.89434 -0.113834 0.432663 0 255 255
3.66244 0.149267 0.578396 0.807368 0.23606 0.540771 0 255 255
3.66218 0.152057 0.577743 0.969186 -0.13467 0.206257 0 255 255
3.66226 0.14292 0.581705 0.993014 0.114604 0.0280775 0 255 255
3.66695 0.148425 0.577143 0.892838 0.253724 0.372109 0 255 255
3.67971 0.151949 0.584162 0.995538 0.0673961 0.0660449 0 255 255
3.67949 0.15669 0.585159 0.996891 0.0655791 0.0436701 0 255 255
3.68054 0.1465 0.577027 0.981627 0.059086 0.181433 0 255 255
3.69206 0.143104 0.58039 0.995479 -0.0567121 -0.07619 0 255 255
3.6803 0.142817 0.587621 0.997141 0.0754745 -0.00366671 0 255 255
3.68032 0.151209 0.578015 0.985919 0.059711 0.156198 0 255 255
3.69124 0.138594 0.572953 0.998718 -0.0500363 -0.00765781 0 255 255
3.67993 0.147221 0.583167 0.990878 0.109238 0.0789206 0 255 255
3.6809 0.142118 0.581458 0.997724 0.0159146 0.065527 0 255 255
3.68164 0.139076 0.574838 0.967614 -0.0226973 0.251411 0 255 255
3.67934 0.156339 0.579713 0.991604 0.0725893 0.107017 0 255 255
3.66754 0.16272 0.573441 0.916018 0.20784 0.343094 0 255 255
3.6594 0.17231 0.580642 0.818273 0.0172137 0.574571 0 255 255
3.65888 0.16331 0.572666 0.998447 0.00149408 0.0556949 0 255 255
3.65951 0.178498 0.572392 0.979724 0.13851 0.14476 0 255 255
3.66169 0.177966 0.58147 0.963683 -0.240657 0.115756 0 255 255
3.65784 0.176573 0.583798 0.900308 -0.352781 0.254935 0 255 255
3.67016 0.171635 0.582758 0.968969 -0.199781 0.145558 0 255 255
3.65848 0.167493 0.576003 0.83775 -0.287793 0.464059 0 255 255
3.67912 0.161081 0.580704 0.997542 -0.0241771 0.0657694 0 255 255
3.68259 0.177649 0.577333 0.968794 0.24639 -0.0270027 0 255 255
3.67943 0.170176 0.581976 0.929099 -0.316986 0.190512 0 255 255
3.68025 0.164616 0.574852 0.932682 -0.317852 0.170514 0 255 255
3.67827 0.1718 0.594364 0.875215 -0.0102252 0.483627 0 255 255
3.68375 0.172954 0.593055 0.850547 0.136737 0.507812 0 255 255
3.68146 0.178499 0.595618 0.918555 -0.157265 0.362662 0 255 255
